# 3D point list with one line of data per point:
#   POINT3D_ID, X, Y, Z, R, G, B, ERROR, TRACK[] as (IMAGE_ID, POINT2D_IDX)
# Number of points: 316, mean track length: 9.0722175021240439
1375 1.127569779417672 1.2663538167500152 3.4890469541574118 225 220 207 1.6775306256299374 1 20 38 21 79 28 78 14 37 15 81 29 40 33 39 29 82 37 43 79 36 49 46 73 86 74 88 61 48 48 6 41
437 1.0106305917019458 1.4333770947524205 3.2599682802768499 176 173 166 1.0539323368023545 10 88 51 70 94 92 53 113 94 75 95 80 54 98 97 85
447 0.17098397715304672 2.5867219049502688 2.5717751462514888 0 0 0 1.5395483162167833 51 54 94 66 95 55
928 0.90327643990801165 1.800368591667163 3.5449695513181867 93 94 98 0.30362954079881926 25 71 67 72 26 62
1429 1.0362694690425185 1.5931218665724551 3.0301891259949025 205 201 188 0.42675688840021825 80 143 78 134 37 136 35 131
435 0.97230011711665876 1.2858756623975383 3.3367600275268563 191 188 179 2.0276759123952415 94 76 53 92 11 86 95 81 11 78 53 76
52 0.34545253326242875 2.4798917652734622 2.5160858239932953 201 198 188 1.6151584686752984 1 101 44 21 45 30 7 61 89 21 89 53 7 16 2 18 2 38 47 74 90 27 90 121 8 18 91 22 91 46 49 16 49 30 49 131 5 23 5 43 50 20 50 55 92 27 92 46 9 38 93 29 93 51 52 19 94 26 51 23 10 18 53 43 11 90 95 26 95 85 12 36 54 64 97 36 97 109 54 104 96 50 55 70 13 114 56 114 87 20 46 40 46 114 48 37 6 44
1447 1.4942790597955249 1.7053414707683858 3.0665653166238638 138 137 136 0.88784483004726633 79 156 37 57 43 95
443 0.35962561942284477 2.1021043227057601 2.897212452449724 184 180 172 1.7978409628182135 94 39 11 81
61 0.36586935479722504 2.1310470156000552 2.7339027896154264 182 178 166 1.8984805774474709 1 119 44 143 3 152 45 125 7 105 46 111 86 131 86 133 88 111 6 95
940 0.097325469144685858 2.3448533170340591 2.7821839564407549 210 206 195 1.2428562003010348 27 4 67 2 26 5 68 5 70 11 28 10 71 18 29 16 30 35 73 35 31 28 32 30 75 29 76 31 33 41 74 76 34 44 36 62 77 71 37 80 80 84 38 105 35 50
1058 1.0685729103732902 2.2239991449117955 2.6754976181427135 145 142 136 1.2876980494171872 30 47 29 108 71 117
389 0.94627302376713163 1.4859267501649165 3.3172607371746703 206 202 192 0.21586539628472856 5 112 52 101 10 58 51 69
457 1.0556967194914093 1.4538341078273449 3.1734295329136608 212 208 197 0.37201336700995863 11 23 95 22 12 23 54 20 97 23 96 27 55 19 13 22 14 25 98 37 56 25 57 34 99 32 15 37
66 1.3500251769546001 1.8865232026299226 2.8575324584739961 140 139 138 1.6777121782004953 1 139 44 138 3 121 7 127 39 115 78 148 41 132 82 122 44 127 4 118 4 144 83 118 43 133 85 147 85 159 46 143 86 110
67 1.1434441966750108 1.3657645848832503 3.1996171051189752 203 198 185 1.6942496952894655 1 141 44 132 3 119 45 118 89 107 4 126 39 113 43 151 87 121 86 118 46 118 86 117 88 115 88 130 89 82 48 133 48 140 6 104
801 0.11481607990899841 2.3818706848500053 2.972167871037616 129 129 127 1.5968992746022039 22 44 65 94 23 99
80 1.0223141710732591 1.488978728227671 3.1712167362572643 185 181 170 0.96166010322660422 1 82 45 117 46 99 86 89
479 0.12128144641619171 2.2903691349742203 3.0078837550181627 95 97 100 0.51423456549218038 53 31 95 36 54 26 97 20
87 1.4135820945067807 1.6016141254074059 2.9554610079917647 134 133 132 0.6399624686558999 1 48 3 73 84 66 81 66 82 67 43 74
1835 0.48969874710351513 2.4512933514357829 2.4979169317505971 161 160 157 1.2896559862837624 1 111 7 89 89 46 2 57 90 94 91 76 42 92 4 30 87 28 7 31 89 22 2 24 47 32 90 28 8 23 91 21 5 24 92 37 9 40 52 33 94 31 51 36 10 30 53 34 11 40 95 35 12 33 54 42 97 42 96 49 55 39 13 46 46 61 86 123 88 33 48 33
90 0.15354092581169804 2.4173744084892923 2.6545771474545443 154 151 145 0.78003080912990952 1 53 3 81 45 60 87 93 46 59 7 47 86 64 88 62 48 60
1431 0.3810056019955434 2.5326204934583134 2.5826225177380024 181 177 169 1.5496404367001193 38 142 78 138 37 148 81 70 39 103 84 102 82 135 42 65 4 61 43 57
103 1.054211748227752 1.5783070049506502 2.9897923761899006 192 187 175 1.2770313078704081 1 131 3 130 45 70 42 158 85 128 43 106 87 125 86 120 6 76
920 0.50693059410808372 1.8356915574354571 2.9876913999848158 171 169 165 0.26784374784462373 69 33 67 30
497 1.3222666880574525 1.3535975362146877 3.1002055430208708 193 188 176 1.2155004611122282 97 100 96 96 55 107 13 103 14 111 98 123 56 102 57 123 15 99 17 110 59 96
1485 1.3250461425354016 1.929156861423774 2.8875956134822403 113 113 115 1.5147631450074892 1 140 3 153 76 127 78 151 35 129 41 133 4 147 83 119 85 150 32 116
106 0.94798528797619841 1.7518330725844515 2.7878096421062928 186 182 170 1.1268931890257858 1 47 3 139 4 159 43 101 86 61
1946 0.46373346091185536 2.5216269842493957 2.5238861145590872 131 132 132 0.84518984618050574 44 49 45 33 7 66 2 30 47 66 8 66 49 73 50 67 9 44 93 52 52 55 51 62 10 60 88 35 48 34 6 33 44 85 4 106 42 44 39 46 84 60 83 24 85 62
107 0.51917056196512334 2.0281847244331894 2.8359527684540011 213 208 195 1.2360621733357984 1 135 3 141 39 107 84 142 87 100 83 109 86 132
511 1.081208990101945 1.5482784973857011 2.9693225342212917 210 205 194 1.1483560418239069 12 49 54 44 97 44 13 58 14 57 98 62 100 112 17 115 64 97
1100 1.6101837925905762 1.6180811413885017 3.1616597591443916 124 122 118 1.9548548765436546 73 113 31 110 30 126 72 132
113 -0.43091743711928965 2.2682193198136451 -1.8836443434741521 138 138 137 0.67302562018137857 1 6 3 7 44 6 45 5 7 6 89 7
505 0.84587853417832504 1.6480571666811838 3.2265489507550495 183 179 170 0.7000840008230983 12 54 54 50 96 37 97 33 55 35 13 42 57 43 99 55 15 43 16 48 58 45
1102 1.4993563368554466 1.5600778763902645 3.0981558317082483 147 145 139 0.45241895882529332 30 135 31 119 32 94
996 1.6494424598926976 1.3371451608942049 3.4240015378158888 94 95 98 1.2601651288038453 68 116 27 108 28 66 29 50 73 36 31 35 72 32 75 75 32 78 76 84 74 52 68 100 34 52 36 75
1050 1.219608253250112 2.0020834416201407 2.7381226912315602 134 132 127 1.792092186628206 71 25 30 16 29 22 73 19 31 8 72 7 32 5 75 5
509 0.16031430575782823 2.2746703748735637 2.678549306659419 181 177 168 1.4150241722922949 54 27 55 71 97 58 98 105 56 51
1505 1.6825334240794529 1.8275148194016371 3.2492162461680318 117 118 119 0.32883111916604352 79 53 81 62 38 61 40 39 41 82 83 68
118 0.90768610940242755 1.6246138394902176 3.1976895678483221 169 165 156 1.5404331019868147 3 42 45 22 85 83 87 21 46 17 86 31
1829 0.81563068975962805 2.5042289826037667 2.5710320874187591 125 126 127 0.71626300681078381 3 107 44 142 83 123 84 126 87 136 46 105 86 80 6 112
455 1.056958091798275 1.4111418310005892 3.2676701182953121 187 183 175 1.4419085691801106 53 18 95 18 12 17 96 7 55 6 13 6 14 9 98 8 56 7 57 8 99 8 15 10 16 6 58 7 100 9
1000 1.2014576661183907 1.1941601440401521 3.368930610873055 195 191 181 0.98607256876262517 68 71 70 24 28 23
123 0.79516007395608734 1.8235831813705548 2.8325895655369959 169 165 154 1.6825196889758929 3 123 45 42 44 116 42 149 4 129 83 136 85 142 86 93
1120 1.531284821055465 1.9069850120550262 3.0369956523274251 172 169 162 1.336214733733847 32 1 75 2 76 2 33 2 74 4 34 3 36 3 77 2 80 4 38 3 79 3 78 5 37 4 40 5 35 4
507 1.1268628246237691 2.0523373542756955 2.6908532363916309 182 179 170 0.86706222152546941 97 73 55 49
1519 1.1250626491322724 1.4037786358968816 3.0717025028105702 211 206 193 1.6955490251481611 78 144 81 136 39 126 37 137
124 0.80772746510515903 2.4644200227923783 2.7313400103118419 151 151 149 1.9587465136847135 45 44 4 72 83 56 6 54
125 -0.43272509338203374 2.2642199109534387 -1.8833610147898532 125 125 126 1.0752148049902359 3 129 44 74 45 48 89 57
1004 1.4583934549132278 1.2551727194324094 3.4235205860939808 168 167 163 0.78246026366326238 68 60 28 68 71 32 29 34 30 26 73 30 31 26 72 24
1122 0.42012584865597041 2.0771759365344473 3.4472588570978719 0 0 0 1.4418687709681008 72 1 31 1 33 5 76 6
453 1.0058648110184396 1.7170367674406564 2.8849745049096676 204 200 189 1.1973176655529414 12 6 54 6 97 7 13 7 55 8 96 9 57 9 99 9 15 11 98 9 14 14 56 8 16 5 58 6 100 8 59 14 17 11 18 7 60 9 65 8 23 7 24 5 66 4 25 4 69 5 67 9 26 8
128 -0.46468718480389432 2.1988258930053166 -1.8811612161965177 86 87 91 1.8491565166578363 3 111 44 104 45 64
785 1.0883901344072124 1.3503701452862291 3.2641996891871519 196 193 186 0.18502587319173008 22 27 63 21 65 31 23 24 66 27
314 0.27880206953942299 2.1596089115316714 2.8086052237578416 190 186 176 0.51655356996567625 49 17 91 12 5 8 50 8
129 0.43680644470230506 2.3301888621349036 2.540295170754141 232 227 215 0.50209417038028969 3 71 44 130 45 65 44 64 7 72 85 116 87 106 86 65 86 87 48 59
1302 1.542647792808937 1.297216484175326 2.7794816248051815 195 192 186 0.91847217403221637 34 111 77 96
132 0.38666501923863161 2.1199769079482955 2.7886377671221374 185 180 168 1.0990022738175456 3 134 45 78 6 105 46 88
789 0.84879945831502057 1.7272739218831268 3.1373044600694184 143 141 136 2.1758081762379908 99 116 18 92 61 83 19 87 54 107 14 121 98 92 56 100
1314 1.3525478562893805 1.2052375406225708 3.5646556407757362 0 0 0 2.0246258779568986 36 10 80 15 78 15 35 21 77 16
135 0.27026175242861439 2.4595340293711629 2.5675217234390662 216 211 200 0.82279385849823161 3 97 45 87 7 59 2 95 90 75 8 63 91 73 49 77 5 103 50 43 43 85 88 87 48 62
1300 1.6633730775400155 1.4081757559473589 3.2947244011535375 103 104 107 0.85121793399738677 34 78 77 80 38 85 81 118 40 35 39 44 84 160 82 75 41 64
793 0.35339795491384612 1.5821294611412169 3.3169065719557524 92 94 97 1.0080980605482772 22 79 65 70 23 83
143 -0.44820671992939781 2.2396503405036268 -1.8725711755529957 145 145 143 1.8116010450866953 1 108 44 94 3 149 45 127
1308 0.98442589495773913 1.5665647717444342 3.0894436106541634 187 183 172 0.80265943035922316 34 107 36 117 77 140
144 1.2495209180310516 1.2880023991397054 3.1460668744514519 183 179 167 2.4108540431554246 3 145 45 137 84 175 85 139
145 0.64288545301571343 2.5445225722573315 2.5570404383416241 107 108 110 1.3522071116073551 1 8 3 12 44 10 45 7 7 8 89 10 2 8 47 8 90 8 8 11 91 7 49 7 5 11 50 12 92 12 9 15 93 15 52 13 87 7 46 8 86 10 88 7 48 8 6 8
1159 1.4016842944904773 1.7372739956021637 2.9478476034289689 91 92 94 1.0527376814103686 32 2 76 1 75 3 33 1 74 5 34 4 36 5 77 4 80 6 38 6 79 5 78 7 37 6 81 7 40 7 35 6 39 7 84 6 82 7 41 8 42 6 4 5 83 6 43 6 85 6
148 0.41204364603812876 2.5685507110181978 2.5525226690500253 158 157 155 1.1194444276954949 1 103 3 58 44 119 45 107 84 90 41 81 46 79 86 28 86 111 88 65 48 68 6 53
869 0.66081845530541772 2.0302971111020485 2.5182565364961382 0 0 0 1.705511315530627 62 49 25 40
151 0.84391631617318408 2.510718296446258 2.586248141236112 122 122 123 1.1927611540625369 1 114 44 123 45 126 39 131 41 88 83 124 43 111 85 136 87 58 87 137 46 77 88 94 6 131
152 0.53851755325252137 1.6940019089046523 3.2909854268023233 0 0 0 1.1542934360222004 1 1 45 1 7 1 89 1 47 1 90 1 8 1 91 1 49 1 87 1 46 1 88 1 48 1 6 1
873 1.4637351347335934 1.2378770014121632 3.369397524468043 209 205 194 1.4119059927255619 65 35 25 54 24 35 69 35 67 35 27 44 68 25 70 32 28 25 71 21 29 19 30 19 73 21 31 21 72 21 32 21 75 17 74 45 36 24 77 23 80 29
153 0.75809729799531833 1.6991346907216929 3.2314718412170826 221 216 203 1.764849599783181 45 19 7 10 89 13 2 14 47 10 90 11 8 15 91 8 49 9 5 4 50 5 92 5 9 4 93 5 52 5 94 4 51 3 10 3 53 3 11 1 95 3 88 21 48 13 6 12
1390 0.55715589652689756 1.9414527181804933 3.1857916236189179 214 209 197 2.2658350930465225 77 85 79 122 37 128
154 0.1317178297667774 2.4705499037521381 2.6855270093090091 159 157 153 0.41452164368043043 45 23 7 13 46 23 88 16 48 12 6 17
1280 0.52352725786624654 2.5435618955781281 2.5543017255197378 131 129 124 1.3218208073587132 74 77 36 103 34 65
155 0.93020969372214213 1.4592730858041163 3.3666598580872811 200 196 185 1.1038634928238644 1 28 7 18 89 14 2 13 47 18 90 15 8 14 49 10 5 10 50 9 9 7 52 6 94 3 51 5 95 5 43 108 85 81 87 25 46 16 44 33 86 30 88 20 48 17
1259 1.5162430980689607 1.5303473567766708 3.0818917389214424 154 152 148 0.45842388422435304 33 73 34 120 76 83
159 1.110893353002081 1.2687218207224376 3.406829322166486 209 204 191 1.7321882667321395 7 50 2 47 47 53 90 60 8 54 91 31 49 42 5 33 50 37 92 31 9 32 93 22 52 41 94 7 51 7 53 13 11 11 95 13 12 16 54 11 97 12 96 6 55 4 13 5 14 7 98 7 56 6
160 0.88940959938766995 1.6752998277807754 3.1275820545453894 155 152 144 1.2316847270006199 7 56 89 38 2 68 90 43 91 34 49 35 5 27 50 26 92 21 9 31 93 17 52 27 94 12 51 16 10 13 53 20 11 14 95 19 12 12 54 12 97 13 96 16 55 13 13 13 14 18 98 16 56 15 48 50
817 0.80256812500780628 1.6342390463826995 3.3462224290653686 216 211 199 2.0780635679277748 18 113 63 100 23 97 95 106 54 88 96 63 99 93 57 100 16 85 16 121 100 100 18 108 60 97 12 106 61 86 15 88 19 90 57 73 63 88 65 91 24 92
161 0.87319210905476385 1.7275059375166779 3.0063001959558959 214 209 197 1.3373944015936376 1 133 7 57 45 119 2 49 47 28 90 44 8 31 91 35 49 33 50 35 92 22 87 80 46 97 88 79 48 51 6 78
976 1.3076202388294558 1.6876132951970084 2.8351033745547123 202 198 187 0.45397232400393367 67 89 68 46 28 59 70 74 71 62 29 53 30 53 73 47
1334 1.6445577777781295 1.6391995110542443 3.1929444007108692 153 152 149 1.0609976408089952 36 113 77 93 80 156 38 73 79 98 78 105 37 111 3 155 44 109 81 122 38 159 35 77 39 88 84 129 82 126 41 89 4 145 42 77 43 76 43 132 85 149 86 106
1111 1.4132378497430433 1.6684103228889207 2.9295518532152851 81 82 83 1.5027214643120506 30 81 72 42 32 32 75 31 74 63 77 28 36 29 80 31 38 77 40 29 39 26 84 24 82 28 43 36 32 89 75 85
163 0.57853839079884617 1.8815739971813326 3.3455730121943064 185 181 170 1.1584529293072698 45 9 7 78 89 68 48 110
165 0.89524547558473166 1.6445787892446235 3.18817402735035 161 158 150 1.2819153469860789 45 129 87 140 1 132 88 77 45 116 6 113
980 1.5288564532730116 1.2820337818126473 3.3011553928477797 220 215 204 0.65977722598641264 26 87 27 17 68 19 70 15 28 17 71 26 29 18 30 20 73 26 31 20 72 20 32 17 75 16 76 15 33 14 74 15 34 15 36 16 77 17 80 19 78 16 38 14 79 27 37 16 35 15
1489 1.4599814624835363 2.0096401855287214 2.9593037106226618 182 180 172 0.51176772920586466 1 102 7 106 49 118 36 101 80 159 38 125 79 99 78 126 37 98 81 95 40 103 41 93 83 99 85 157 87 117 46 140 88 107
167 1.3757422239436392 1.7861232540911829 2.864376019485797 99 99 98 0.63978553510660141 1 92 7 92 87 89 46 91
1332 1.1027631905499007 2.5228703819039326 2.7338650502578168 100 100 101 1.9062063586443585 77 138 80 151 37 49 35 122
168 0.89512424559349035 1.5859919437093739 3.2494188162383182 179 175 167 0.44825320999084034 7 95 90 104 2 101 47 85 8 94 91 49 49 56 50 63 92 59 9 50 93 43 52 58 94 48 51 47 10 36 53 42 11 46 95 42 12 38 54 28 97 39 96 38 55 29 48 100
825 1.3592896816703717 3.2516574349634797 3.6649572831637882 0 0 0 0.48756110289429178 21 30 100 60
290 1.0274876719633859 1.4463240087449256 3.2071117774763427 185 181 172 0.67291688572195796 2 120 7 94 91 75 49 99 5 88 92 79 9 58 93 57 52 60 94 44 51 45 10 44 53 50 11 56 95 49 12 50 54 46 97 32 96 42 55 43 13 51 13 94 14 38 14 122 98 47 56 37 57 47 99 42 15 47 16 43 58 39 100 41 59 44 17 52 18 43 60 37 61 38 19 41 21 35 64 30 22 38 62 30 63 28 65 36 23 34 20 30 24 33 66 37 25 43 69 37 67 37 26 47 27 53 68 49 70 52 28 46 71 66 29 48 30 68 73 69
169 0.87028440290423414 1.6625974146732281 3.1903047833553448 203 199 188 0.63566975334512876 1 145 45 130 7 98 89 67 2 67 47 58 90 65 8 73 91 52 49 58 5 55 50 47 92 57 9 51 93 45 52 57 10 37 95 51 53 53 97 48 55 34 13 30 88 97 48 89 6 129
984 1.6970947982504814 1.4917627019553177 3.4887534443720143 97 98 102 0.73244105988698516 68 31 70 33 27 51 28 28 67 71 71 28 29 27
1342 1.7035755604314617 1.5144268422174876 3.4108084072910518 135 135 135 0.88880345891286905 36 8 38 9 79 7 81 11 40 12
300 1.406714147280002 1.7203756800864181 2.9419093731124879 110 108 105 0.83377670188413999 2 15 49 34 90 17 5 100
1119 0.92702391182287203 1.6824842159590709 3.0767016056437577 195 192 182 2.7151946994261498 30 107 73 96 72 95 32 132
173 0.86493823496369915 1.7495721027417299 3.0755350682815572 169 164 154 1.4357396205780923 1 113 7 136 90 109 6 138
988 0.72791023028524382 1.7766776982090176 3.3575489971848036 94 94 95 0.47290125488266677 27 22 68 23 70 56 71 78
1497 0.90629173127154428 2.4210331843331945 2.6084685118689364 119 119 120 1.3136449539447272 1 7 3 9 44 7 45 6 38 10 79 14 78 12 37 9 81 10 40 11 39 10 84 10 82 9 41 11 4 9 42 10 83 11 43 11 85 12 87 6 86 7 46 7 6 7
1211 1.4566322705723469 1.2210873199402472 3.4156801412875453 176 174 169 0.71867061093466389 76 38 74 46 36 37 34 81 76 79
288 1.0526042246118161 1.3362176989689822 3.0292795154181626 211 206 193 2.7456262321554106 89 50 91 66 49 52
175 0.8619027684074273 2.3262835165318467 2.4581224357397775 200 197 188 1.6130119391131388 3 59 44 42 90 71 91 72 43 88 4 91
176 1.2325994032196563 1.2728824758531017 3.1502955857384536 199 194 181 1.5970103514565697 3 69 84 146 41 103 86 58
769 0.13028586422796964 2.5765652883279033 2.7267799904338998 204 200 191 1.6118053562756467 22 55 62 74 65 18 23 68
177 0.56018312504663981 2.5223294508283378 2.5390728727844656 119 120 122 0.86739273651496285 3 127 7 42 89 60 44 87 2 64 47 56 91 63 49 51 5 44 50 59 92 70 9 93 93 90 52 78 4 121 42 134 43 89 85 108 46 36 87 64 86 45 88 43 88 91 48 67
1286 1.3417083294092476 1.9740928526895305 2.9333570655001937 97 98 101 0.86520796699763791 34 133 36 128 77 95 41 148 82 157
178 0.98371290688212176 1.5557352454091757 3.4975150579960728 169 166 157 1.9295570642333075 43 150 4 138 85 131 7 97 48 90
773 0.6825783937246116 1.199325212536154 3.2783182119380236 214 210 199 1.8939632392058032 62 101 65 49 22 71
302 1.6120671091586443 2.0028982668136481 3.1327980908819337 113 112 110 1.2650882107957424 89 118 49 64 5 113
182 1.7062246048649541 1.7102230946187371 3.2946659524919024 122 121 119 1.9148354864729324 1 95 45 84 89 112 8 106 49 114 4 27 42 29 83 21 43 43 85 51 46 87 48 129 86 78
184 0.91248991675466895 2.0442729899046324 3.0756521471923146 217 213 202 0.98585146435552473 7 0 89 0 2 0 47 0 90 0 8 0 91 0 49 0 5 0 50 0 92 0 9 0 93 0 52 0 46 0 48 0 88 0 6 0
777 0.7653767541087203 1.9004484286830665 2.8125478822507679 203 199 190 1.3331561954634983 22 7 62 8 63 7 65 6 23 5 20 9 24 4 66 3 25 7 69 9
1294 0.68879158445146094 1.7580728297701764 3.3810057642042914 230 224 212 1.0626809901561767 34 66 77 30 74 81 80 57 79 47 38 65
1803 1.0014966112758934 1.6629023500610614 2.8388835185581396 217 212 200 0.39581865293594398 45 10 84 105 1 11 87 9
1312 1.4343209037654012 1.3705881513632683 3.1656828447953451 206 202 193 1.1494419930112636 36 1 80 1 38 1 79 1 78 1 37 0 35 1
187 0.88966313233708949 2.457026277243207 2.581275893249332 105 105 108 0.73163043210416123 7 17 89 23 2 25 47 25 90 13 8 17 91 16 49 15 5 14 50 19 92 17 9 26 93 27 52 28 94 23 51 25 11 60 53 83 95 108 88 18 48 25
781 0.31376752503256999 2.0538113118456671 3.1156190826128869 158 157 155 0.40364448671416442 61 72 63 60 65 78 23 77
310 1.0681401341079297 1.3503082892022997 3.0367380364247469 192 187 176 1.739025175435043 8 101 47 127 91 94 49 104 49 105 90 125 8 102
1185 1.11517869877152 2.0513357046418186 2.6625580107100921 138 136 131 0.42489994997692382 75 100 76 120 33 102 74 107 34 106
190 0.91807240364804332 2.38647132457056 2.5686648607628202 132 132 131 0.71356731435692378 89 30 2 31 47 35 90 32 8 38 91 44 49 49 5 74 50 61 92 73 9 66 52 88
191 0.033631779220707668 2.3964149154075316 2.7128574466549598 0 0 0 1.2707241657911796 7 22 2 34 47 106
1292 1.5776901526928613 1.3732008832673841 3.2307915931610967 210 207 197 0.13854554125059715 33 58 36 45
1574 0.52872801288305238 2.7757168917087833 2.6518207432236673 0 0 0 1.1038449782558541 40 2 81 3 39 2 84 0 82 2 41 2 42 1
192 0.32659104432755504 2.5523521187734288 2.5333067958005331 178 176 171 1.0483108181669267 7 33 2 35 90 26 47 68 2 91 91 24 49 39 5 36 50 21 9 22 52 36 94 25 53 60
849 0.43124395303732321 1.9579546261341552 3.2491498183909946 93 95 98 0.41255076451069206 24 19 65 17 66 15 25 26
1366 1.3329000369934021 1.8701164338532648 2.8430774686787328 112 112 114 0.94388028179845063 77 135 38 122 79 151 33 137 78 87 3 120 44 111 84 109 82 104 43 116
382 0.69815867035543056 1.7542681175953367 3.2751679624995313 174 171 163 2.2557563853871252 5 102 9 87 93 81 49 84 92 85
197 0.74236668534676564 1.8043402221427196 3.0933790540092505 164 160 152 0.64798496931059901 7 100 89 44 2 51 47 50 90 46 8 28 91 36 49 32 5 26 50 27 92 23 93 18 52 14 48 85
198 0.5797000091634853 1.8727508415105483 3.1460954872035725 204 200 188 0.3359593072759699 89 51 2 52 48 52
1235 1.704153929469898 1.3982348248847249 3.4344011251978692 108 109 111 0.53831072162488047 33 89 76 92 74 120 34 89 37 37 80 28 35 26
376 1.6841718342273337 1.5875929788030041 3.2364352511959451 0 0 0 2.2159485711235383 5 64 93 59
1573 1.5131160730298823 1.4753987520832432 3.129028327122882 174 172 165 0.96870684616530767 70 110 71 109 27 115 30 115 73 89 31 63 72 57 32 68 75 35 74 89 34 61 35 59 38 50 79 77 37 51 77 134 44 135 3 143 40 57 40 157 84 166 39 83 42 83 83 62 43 45 43 142 44 57 85 38 46 76
199 0.65972140936982271 2.3851678806117991 2.5253347387082572 182 180 174 0.70113851732465782 7 35 2 53 47 36 90 119 48 46
1582 0.14667704073127616 2.202982698583952 3.0136534427602615 212 207 194 0.86795735728023871 40 58 39 75 82 54 41 52
322 0.40247263566887176 2.5600819266581141 2.5259290926921345 164 162 159 1.0102820997482802 8 46 47 46 5 49 50 30 92 39 9 46 93 41 52 48 51 33 10 27 95 37 13 48 55 51 96 51 14 107
332 1.3530646015559797 1.6000197315238578 2.9002886458547765 219 215 203 0.1613372734751172 91 86 5 123 49 112
1279 1.4707302880002773 1.5415727708119595 3.0754396671548414 169 167 162 0.89522723837926288 74 110 76 52 36 87 77 44 38 96 79 42 40 71 35 139 39 61 84 165 82 72 42 63 43 141 44 44 3 74
204 0.39275264914879576 2.3083688961332491 2.5517201403412364 233 228 216 0.57572285940712231 89 47 2 74 8 56 49 38 50 42 52 66 48 57
861 1.5345092340270161 1.4757575152214633 3.1640540821877625 194 189 179 0.0068565825520371815 22 104 66 103
205 0.76431752652521601 1.7711001161702051 3.0337513788825858 171 167 158 1.3521823935025323 7 126 2 82 8 107 49 115
206 0.86005265457530689 1.7042515327040182 3.1078211817240438 150 146 139 1.3788587297410921 7 108 89 90 2 83 90 80 8 90 92 96 5 56
1581 1.3889248285149711 1.6484068346929708 2.9364656337573836 148 147 146 0.43800118209486422 35 58 81 93 39 57 41 83 42 61 43 139
207 0.83781549341987138 1.7064674337144368 3.1820828055964991 214 209 198 1.3269545800906573 7 99 89 62 2 84 47 81 90 81 8 74 91 53 49 59 5 57 50 49 92 40 9 42 93 35 52 43 94 38 51 29 10 23 53 26 11 27 95 24 12 21 54 16 97 17 96 18 55 25 13 26 14 30 98 28 56 30 57 31 99 36 15 29 16 32 58 26 100 36 59 38 17 44 18 24 60 26 61 22 19 20 21 22 64 17 22 22 62 22 63 19 65 30 23 25 20 20 24 24 66 21 25 20 69 23 67 24 26 25 27 16 68 13 70 14 28 16 71 27 29 24 30 32 73 33 31 23 88 98 46 110 48 96
208 1.2716904076753068 1.3510536356403162 3.1224733869630121 206 201 188 0.41981959214664138 7 88 89 65 2 89 47 73 90 61 8 68 91 67 49 53 87 122 46 102 88 74 48 93 6 74
929 0.10749284015567905 2.2867065015382502 3.0416815776260266 0 0 0 0.99143689659783518 66 106 67 81
549 1.0808617227810986 1.2851969646353023 3.3914456636371315 215 211 199 0.43747215798831174 96 56 56 53 57 66 99 74 15 79
1223 1.251847095559633 2.3450578857537177 2.7019534594997037 124 123 121 0.58901684515431563 76 90 74 83 33 105 34 67 77 112
211 0.47237445042553983 1.9708381250085218 3.0045806875775436 169 165 156 0.67539547848143777 89 113 2 102 47 100 90 118 49 63
212 0.7048997050011343 1.9801662098441839 2.7470660438357903 210 205 193 1.3485605574900348 89 115 2 103 47 101 90 114 8 122 87 129 46 126 88 123 48 113 48 115 6 136
933 0.40167941786706474 2.0518045928177502 2.7527932412451479 195 192 182 1.6118373640785395 67 25 69 61 26 6 27 13 68 20 70 18 28 15 71 23 29 20 30 34 25 61
213 0.14496218216770848 2.3332867345324551 2.7289785615054725 195 191 180 0.65581632054014238 7 74 89 64 2 106 88 132 48 117
1589 0.90797754798979591 2.5272190125308835 2.6264816110031548 141 141 139 0.87219828291579171 40 129 39 129 38 111 79 132 82 107 41 140 4 152 42 135 83 103 85 122 87 59 46 78 90 98 2 90 86 57 86 82 88 137 48 121 6 69
215 0.95902396328916972 1.6071326352645543 3.0906459203182801 169 166 157 1.2015748639552879 7 86 2 119 47 45 47 123 90 58 90 127 8 35 91 30 49 29 5 32 50 38 92 32 9 27 93 23 52 22 94 19 51 18 10 14 53 27 11 25 95 23 12 25 54 23 97 25 96 26 55 26 13 23 14 31 57 23 99 20 15 21 16 19 56 26 58 19 100 27 59 27 17 27 18 23 60 25 61 25 19 22 21 21 64 15 22 20 62 24 63 23 65 28 23 22 20 23 24 22 66 19 69 34 25 25 67 27 26 34 27 38 68 32 70 35 28 37 71 48 49 129
546 1.0355053957079019 1.3376821485867116 3.2068732793226196 187 184 176 2.1698368075355585 12 100 98 132 56 116 100 117
1598 1.5937734373811474 1.8449833762543275 3.0956901577318785 165 163 157 2.1669849893678643 1 99 44 139 3 103 3 157 45 103 7 76 89 73 39 80 1 127 44 118 3 156 7 132 89 117 32 127 75 139 76 121 33 125 34 141 77 102 80 134 32 148 75 138 76 131 33 127 74 147 34 116 36 123 38 131 38 132 79 145 79 153 78 104 78 131 37 115 81 111 81 124 40 107 40 143 35 93 39 121 39 124 78 64 81 82 84 119 84 135 82 52 82 138 41 92 41 94 4 125 42 122 84 79 83 126 43 120 43 154 85 90 85 113 85 114 85 153 46 113 86 116 48 81 6 120
937 0.37760048604854846 2.0284846410815121 3.3114505503872942 0 0 0 1.0171551159013794 69 29 26 37
1571 0.69982634807425814 2.5497475821691129 2.6861357047944958 0 0 0 0.36240635822075218 36 64 78 114
338 0.47624604889401723 1.9429946038860049 3.0041310665942405 207 202 190 2.0429681433618718 5 118 91 114 50 103
217 0.14020105697571958 2.6059174917308701 2.6674676620489919 0 0 0 1.2527892175388979 2 3 89 5 47 3 90 3
218 0.6270631590188136 1.7667082764614221 3.305302470231728 0 0 0 1.6256660965569867 2 5 89 9 47 5 8 4 49 3 50 3 92 6 9 8 93 3 52 3 94 1 51 2 10 2
557 0.41701438435407456 1.9818289887036069 3.136095861652282 203 199 189 1.1319210323310143 14 2 56 3 98 4 57 5 99 4 15 6
219 0.43569461981983415 2.1010206480739391 2.8705569158619819 194 189 177 1.5242981108510318 2 20 47 15 90 21 46 14 48 21
220 0.72876720245818416 2.6568861610909846 2.7127770717597808 87 89 93 1.5456988951776158 7 9 89 12 47 29 90 10 91 11 49 11 5 15 50 29 87 15 1 13 45 24 46 10 86 12 88 11 48 11
1402 0.61175573106958392 2.26628159175685 2.8500396961306285 211 207 195 1.9425987237511666 38 0 80 0 78 0 79 0 37 1 81 0 40 0 35 0 39 0 82 0 41 0 4 1 42 0 83 0 43 1 85 1
545 0.73102749078641605 1.9518187218788823 2.7352546367023134 225 220 208 1.3274011248830926 55 95 96 106 98 115 96 107 56 109 100 98 58 107 59 134 17 122 18 114 60 108 61 111 21 94 65 106 67 117 26 83
223 0.31298450086118029 2.1310934499637355 2.963120171631537 175 171 162 2.1370188885399406 89 98 47 62 90 137 8 112 91 104 49 41 49 107 48 116
224 0.88600238023183131 2.6156297477679415 2.5206864413291261 93 94 98 1.4822387691349199 2 63 47 67 90 72 46 72 45 49 87 75 88 27
881 0.92370715550512161 1.5688300276863583 3.2410855547835662 181 178 170 0.36735178553115228 24 88 25 104 66 102 69 102 26 111 68 109
1277 1.638822942280191 1.6812414087342569 3.5769244527190267 95 96 100 1.1572719578711419 32 54 34 74 74 74 75 51 36 72 77 68 35 48
282 0.34610761241636356 2.6279248646527895 2.625428250053405 91 92 96 0.4769410600695505 89 39 91 33 48 47
225 0.7769722281827095 1.7878465923801581 2.9394754188768792 198 194 182 1.0657491490246542 89 109 47 79 7 124 90 101
1398 1.6818797627167146 1.7295648260123961 3.2759714323843632 99 99 99 2.100227847718187 72 135 32 153 75 120 76 118 80 123 77 66 36 98 38 60 75 119 33 116 79 149 75 78 76 78 78 123 34 51 37 141 40 83 40 154 35 67 39 72 84 120 82 34 41 95
1907 0.62627236100271289 1.8133636962111279 3.303595434511208 0 0 0 1.0772109068783733 90 67 88 57
226 0.93630338900472987 1.5258223184489574 3.2649461636066937 174 170 162 0.91125721866175602 2 87 7 112 47 86 90 103 8 69 89 84 7 129 91 68 49 100 5 63 5 116 50 65 92 66 9 48 93 48 52 51 94 37 51 46 10 34 53 39 11 43 95 39 12 39 54 22 97 24 96 39 14 28 98 38 56 27 57 30 99 40 15 28 16 29 58 32 100 30 59 37 17 34 18 35 60 35 61 28 19 25 21 26 64 22 62 20 22 24 65 19 20 21 66 25 25 28 69 28 67 29 27 29 68 17 26 39 70 23 88 68 6 114 6 115 6 116
356 1.3564935812551879 1.2105377789489205 3.4195972237359826 192 188 175 0.56562423326939482 91 65 9 53
1175 1.3097968299156961 1.6137890852936216 2.882042921307542 222 217 206 0.75402751662091017 32 65 75 77 76 91 74 85 40 84 78 74 39 92
228 0.5263644870540396 2.0016853140219522 2.7433477169050762 199 194 183 0.87010967736369005 7 115 89 114 47 102 90 120
885 1.6702294564886637 1.38618877523717 3.4542957191976731 102 102 101 1.7327057085153958 63 91 25 121 67 90 26 91
286 0.83616854629717186 2.3365698381932649 2.5149431233973241 207 203 193 1.1993549912969104 8 113 47 63 91 57 90 56 49 90 5 86 46 41 6 10 88 26
1161 0.55773279714263224 2.4335691479624795 2.4666163621240602 0 0 0 2.2257565560695705 75 27 76 18 36 40 32 6 77 72
229 0.32257053689076098 2.1263311800921656 2.867848254799986 182 178 168 1.329326004088955 89 97 2 79 90 133 8 59 5 60 9 29 91 43 92 26 93 26 52 29 94 21 51 24 10 17 53 15 11 18 95 20 47 104 12 19 54 18 97 18 96 20 55 16 13 16 14 24 98 19 56 17 57 26 15 25 99 19 16 13 58 18 100 19 46 124
1267 1.6410267697148826 1.9372312014027808 3.1468433568062513 123 123 124 1.106927829817596 74 16 36 18 34 16 77 19 80 21 38 18 79 20 78 19 37 13 81 24 40 22 35 16 39 21 82 19 44 38 1 59 42 19 45 17 1 58
280 1.4396081856954746 1.5565207958814293 3.1757316239000324 231 226 214 1.8390943247525644 2 75 47 71 8 124
231 0.9336801369636345 1.7768527435829304 2.8315089251301031 231 226 212 0.45379076728472073 7 123 47 121 8 128 48 119
232 1.3347439364774887 1.5737807532759602 2.7779399025069118 209 204 194 1.7839583025983199 2 94 89 104 47 130 90 141 88 139 7 85
889 1.003861904073768 1.5316590442381581 3.4511402802688815 203 199 190 0.62106160824986179 20 56 69 58
233 0.76210194597712511 1.6316002749852572 3.3133139376817415 0 0 0 1.8642090860944149 89 16 90 16 8 91 46 11 6 30 87 49
1406 1.607480762941669 1.3711871986518238 3.5053558220832057 127 127 128 0.85225538204076534 38 27 79 22 80 20 78 18 37 18 35 17
1296 1.5195042018522789 2.1349273672145124 3.1023884495514156 94 95 98 1.265247602006105 34 53 77 54 81 125 40 81 84 81 41 80 42 81 83 67 43 112
235 1.4909855596829065 1.6628648989411066 3.0640311700112326 154 152 146 1.0238367796700014 7 26 90 45 8 72 46 24
352 1.0277587018103513 1.4237745905552863 3.2376412907589014 193 190 180 0.20486005730815265 5 20 50 23 92 19 9 25
239 0.3499510248415415 2.04777698995394 2.8384155147827292 170 167 157 2.1194654152800636 90 90 8 78 2 72 49 46 7 103
372 0.78203498138996264 1.5807418931840662 3.2583229517651837 193 190 180 1.3442067036354257 50 83 9 63 51 48 53 96 11 82 95 83 12 87 54 101
1255 1.4596025066089902 1.4977351494768882 3.0852809840026767 153 152 149 1.2164192722764415 32 110 33 82 34 70 76 146 36 43 80 45 79 103 38 107 78 152 37 95 81 67 40 94 82 68 84 98 41 111 42 136 4 35
1304 1.3521142702730466 1.5911049059868629 2.6540546731982988 213 209 198 1.0242739736400179 34 131 77 99
243 1.2967289942394147 1.6496629998800236 2.5533983100796229 181 177 169 3.2716631275739809 89 87 90 128
244 1.263912389879758 1.2385356562386707 3.4745452569665982 189 184 172 1.4238165125284106 47 110 89 99 90 140 8 132 91 125 2 124 49 119 48 141 7 131 86 128
1298 1.2950497481142798 1.2088816042085675 3.5239098898895835 163 160 155 0.43728475989033855 34 54 77 62
246 0.60638786596000338 1.7456658704844006 3.340859179822012 0 0 0 1.3331264986132925 8 3 91 3 5 1 50 2 92 2 52 2 93 2 48 4 7 4
1219 1.4832837308967526 1.2681050757259726 3.404839961197291 176 174 169 0.61601997044925305 33 26 76 23 74 69 34 46
360 0.03990097576469942 2.5127638737089093 2.4732849823764833 90 92 96 1.8673522082061527 5 45 9 68 50 57 93 71 52 74 94 85 51 78 10 49
248 0.15527603010443602 2.1980211875485214 2.9161635683662381 203 198 187 1.6573756804705857 2 23 9 5 93 6 94 2 51 1 10 1 53 2 11 3 95 2 97 2 12 2
841 0.88963769739264553 1.6389375501112164 2.9306311537852259 195 191 182 2.3196701441880632 65 107 24 75 25 93 69 62 67 110 28 98 68 101
370 1.0188386218924259 2.477595342597648 2.4933202808357184 0 0 0 0.53207696247276848 5 110 50 86 9 16
249 1.4960280685380116 1.323754267633285 3.2349822355676165 227 222 209 1.4798440618207314 47 9 90 5 8 13 91 9 49 12 50 13 92 15 9 23 93 31 52 20
1358 1.4581911114447734 1.6142679070013957 3.0458287972289444 142 142 141 0.64367323441076674 74 133 32 103 36 88 75 89 38 79 79 101 81 91 35 138 84 162 82 120
1867 0.55947501811446809 2.00431793411911 2.8071366284717136 194 189 178 1.4056427370290214 1 120 3 124 45 93 82 123 84 144 79 116 37 82 40 115 39 108 41 125 84 137 81 106 87 83 46 93 7 71 89 70 88 81 48 83 6 80
250 0.062745964505972071 2.3027417203995664 2.9662047256304751 0 0 0 1.1602008503097303 2 33 8 16 91 10 49 13 5 7 50 11 92 11 93 9 52 8 48 23
380 0.26016099699365158 2.5365443947180917 2.5625955994032981 178 176 171 1.21004191021529 8 80 5 48 93 72 2 59 47 17 90 53 8 27 91 26 49 22 5 38 92 29 52 25 52 73 94 22 51 26 51 59 10 20 53 28 11 19 95 28 95 77 54 41 96 78 98 106 48 66
1263 0.54215990346489906 1.7277535710665921 3.3137947335259952 0 0 0 1.7695576058836955 34 2 36 2 77 1 80 2 81 2 44 1 3 2 41 3 82 3 78 2 4 2 35 2 83 3 43 3 85 3
1376 1.55295308253689 1.9138254860325967 3.0537169037960679 195 192 185 0.68733438649461365 80 40 79 29 37 14 81 19 81 38 35 32 41 24 43 34 85 37
251 1.5741517219029744 1.4225585789829769 3.187731108010849 226 221 209 1.1387446793297162 2 9 47 11 90 12 8 19 91 13 49 14 5 19 50 22 9 24 93 76 52 30 94 42 51 32 10 24 53 66 11 37 95 44 12 48 54 39 97 41 96 54 55 55 13 56 14 65 98 73 56 62 57 65 99 72 15 81 16 67 58 63 100 79 17 69 18 70 60 65 61 35 21 28 64 56 22 62 63 57 65 50 65 25 66 50 25 50
252 0.68327041535706434 1.8787614184864538 2.9152857740874234 216 211 199 1.246098016133387 8 21 49 24 5 18 50 17 9 12 93 11 52 10 94 8 51 10 10 6 53 11 11 7 95 10 12 8 54 9 97 10 96 10 55 10 13 9 14 11 98 10 56 9 57 16 99 16 15 14 16 10 58 11 100 14 59 13 17 15 18 11 60 17 61 11 19 9 21 13 64 9 22 10 62 9 63 9 65 9 23 8 20 10 24 6 66 5 25 10 69 14 67 10 26 9 27 7 68 6 70 5 28 5 71 9 29 8 30 7 73 6 31 10 72 14 32 9 75 7
374 1.2808179708507592 2.0415728673315581 2.8623187715484546 132 130 126 1.6516497681562901 5 5 9 11 50 6 92 7 93 12 52 9 94 96
1249 1.382029211945349 1.4353870847063523 3.0767887314036737 182 179 173 0.98303382277764018 74 20 76 49 34 27 36 23 77 22 80 17 35 20
253 1.4314094442846446 1.5343247181756694 3.0285431847325142 163 160 152 0.54635911159991268 90 30 8 30 91 25 49 26 5 51 50 40 92 49 9 82 93 82 52 80
254 1.4315442547662898 1.6009161146655859 3.0024245391606232 128 126 121 1.0160272086659039 90 23 8 33 91 29 49 27 5 79
688 0.61600303389081235 1.8286137622002778 3.1924443113719962 177 174 165 1.525247633868771 58 92 18 110 16 106 60 98 19 103
654 0.33647427462279234 2.0199020648179569 3.1138337087989747 207 203 192 0.84268810721703535 14 100 59 80 18 130 60 103
1714 1.6698219755075747 1.4610616738380855 3.5472842500839508 136 135 133 0.9408461260905514 39 118 42 33
259 1.4347151395300597 1.6491905354270751 3.0009808568260219 101 100 97 0.37886332328631117 90 35 8 55 91 51 49 57
261 0.94274593323426337 1.5879913283211189 3.1618171567309266 198 194 184 1.3307904868195055 90 64 8 70 91 69 49 54 5 66 50 64 52 52 93 42 94 47 51 43 10 47 53 52 95 78 51 85 12 53 54 49 97 55 13 97 15 103 98 100 56 92 16 125 56 107 58 108 100 121 59 78 100 51 17 76 18 94 21 50 21 93 22 57 22 103 63 52 65 47 23 46 20 40 24 55 66 63 69 88 67 65 26 75 27 69 68 66 70 80 28 74 46 135 87 145 88 117 48 92 6 97
262 0.99462528758631652 1.61496130610958 3.0211607818052979 225 220 208 0.65716218151080652 2 85 47 80 90 105 8 71 91 70 49 55 5 77 50 81 92 77 9 49 93 46 52 75 94 46 51 68 10 35 53 51 11 57 95 50 12 51 54 47 97 45 96 44 55 45 13 52 14 58 98 63 56 58 57 57 99 65 15 56 16 55 58 59 100 59 59 53 17 60 18 50 60 49 61 54 19 53 21 47 64 42 22 53 62 54 63 48 65 39 23 52 20 37 24 29 66 32
265 0.32590498705467064 2.0339879422725495 3.0899531449663575 210 205 193 1.528660064491673 89 40 8 82 91 20
268 0.26504036860476576 2.1584610932760011 2.8067271576948216 178 174 164 0.61298835877138347 90 138 8 88 47 115
1215 1.6337606883528628 1.3404302000033734 3.3239323625318091 171 169 166 0.53176917194895057 33 44 74 59 34 100 80 53 78 60 39 87
269 0.90658634379482417 1.5985885805799818 3.197040905047857 194 190 181 0.48592078518834508 89 85 8 93 7 96 91 50 46 133 88 141 48 101
650 1.2311626850901887 1.2589708937512454 3.2894872311672008 194 191 182 0.38201186712686264 58 53 59 60 61 84 19 80
271 0.64443150038703434 1.8721717852664035 3.296795175627881 176 172 162 1.184257392337934 2 107 8 109 49 93
644 0.87979545826666228 1.8601147307229675 3.5348588178919216 98 99 102 1.4310320166434956 57 62 99 57 59 22 58 34 17 23 18 22 62 19 20 17
277 1.6226637016165173 1.6471253171769191 3.1825869865437806 135 133 128 2.0296064511055927 8 34 47 96 91 32 49 36 49 113 91 119 50 36 5 22 92 33 9 60 52 104
278 0.49622268206460585 1.9401132831039585 3.1566566471494255 207 203 191 0.97952649956031868 90 124 8 111 2 114 47 119 91 100 50 82
1153 1.4633389738231806 1.5597055166582543 3.0834457274706071 161 158 151 0.13135212372564445 31 95 75 90
1674 1.2674343564118964 1.6588810848534226 2.8427474268192037 231 226 214 0.5375836805523706 1 71 78 75 77 58 41 79 42 160
666 0.35231733465185422 2.2698125363931152 3.266657033518519 92 93 97 1.2650242282248545 16 46 17 32 15 68 99 76
592 0.31301562507638486 2.1154581252359628 3.0165460329143641 205 201 190 0.8266592792292573 98 67 99 97 15 70
289 1.0188051207091606 2.4736235631785126 2.7604206534880769 130 130 129 1.4785676600106765 47 84 91 74 48 122
686 0.11716857238182339 2.4073230643821852 2.9665594749219948 82 83 87 0.030195361717492215 59 91 18 98
1618 1.2722182131052966 1.3694733532006818 2.9165341740491262 0 0 0 1.6934861395891412 45 73 39 135 82 137
291 1.1417701497518764 1.9162617276690022 2.683167212958772 216 212 201 0.56193653881549011 2 80 91 81
674 1.55058304348377 1.4220547490672335 3.2081527632528517 194 190 178 1.4706934068223638 18 17 22 15 63 13 62 21 20 18
1331 1.0378531849875474 1.5386739231061137 3.0472492001116476 224 219 206 1.1547502125256881 80 142 78 163 38 149 79 167 37 126 37 135 35 120
600 0.29750604093829619 2.464701631340172 2.528732828010376 217 213 202 0.27434604751158104 98 104 15 93 58 82
297 0.84133171956219543 2.4608437450562812 2.5494446810976834 107 108 109 0.46352234955265048 2 110 91 127 49 109 50 87 9 113 48 75 6 121 41 130
1626 1.2224934044610731 1.4738370864993275 2.6629930536794943 165 160 149 1.9402612051556276 81 138 84 147 40 119 41 118
299 1.4642159522394629 1.9508946747924234 3.0205492086527959 187 184 175 3.1243505281115125 47 82 90 89 91 56 5 104
604 0.56345607076850435 2.4871118877542813 2.5000788036764741 175 172 164 1.205013408805587 14 77 15 117
301 0.5250587343892954 2.0856454744479578 2.6878594937612874 208 203 191 0.63136482469270239 2 73 8 57 47 77 90 77 49 47 47 61 50 51 92 43 9 52 93 49 52 39 51 28 10 22
682 0.64470362475227483 1.3005833932612196 2.6579362750657194 226 221 208 1.3828680516626086 17 71 57 93 99 73 63 70
303 1.2497906460751556 2.36047325710383 2.7356189076626598 133 132 129 0.53202156841526216 8 84 47 116 91 78 49 78 5 121 50 106
1319 1.4889560820960601 1.6711295646323052 3.2252786087036975 144 143 141 2.2480960293139454 34 93 74 97 80 69 38 165 78 127
702 0.2024448906788166 2.5551309073638744 2.9332944657986149 132 132 132 1.1576209918127423 17 94 61 43 19 39 22 60 62 50 63 44
307 0.29776247293163027 2.0951905467450422 2.9659159023454906 181 178 168 0.86734993949621142 47 112 91 79 49 111 2 126
309 0.4085286859035851 2.4262201379896555 2.5381410525054782 185 183 177 0.55263896771371868 90 100 49 132
680 0.59701855834357009 1.888918760550931 3.1012896611242722 165 163 157 0.67317857786004542 17 74 59 82 18 64 60 60 61 49 19 47 21 52 64 51 22 59 62 57 63 38 65 48 23 48 20 45 24 65 66 46 25 49 69 51 67 56 26 56 27 52 70 60 28 62 71 54 29 42 30 61 73 59 31 49 72 68 32 74 75 54
313 0.74213774322245663 1.8098462369214325 2.8497201983166143 183 179 169 1.7810915252773858 8 7 49 6 91 6 50 4 5 3 92 4 9 3 93 4 52 4 10 9 51 11 94 13 11 13 53 9 95 9 12 7 54 8 97 9 55 5 13 4 96 5
646 0.64364915100098208 2.6059554601566037 2.5654105919504806 0 0 0 2.0434442510650062 15 40 100 77
1706 1.5558967140817979 1.5958303993510476 3.1087509885770932 126 125 124 2.4404688702205166 1 67 44 105 3 117 45 47 7 80 84 110 82 109 41 76 4 62 4 133 3 78 37 28 42 97 83 89 43 39 43 75 85 120 83 26 46 53 86 36 48 106 42 45
684 1.1066750867033011 1.3000835720275905 3.4090134078350491 213 209 198 1.3508274146082735 59 117 18 82 17 112 60 44 19 85 21 83 22 54 62 89 63 84 65 52 24 51 24 112 66 91 69 95 67 76 26 60
317 0.54658946531996822 1.9299679154615719 3.0217751026827036 163 160 152 0.52876400424201719 91 80 5 30 8 77 49 62 50 50 92 34 9 33 93 24 52 46 94 15 51 20 10 15 53 17 11 15 95 15 12 15
1778 1.1746969295330132 1.7795266928247435 2.7757516409742937 203 199 190 0.57598794422480104 44 88 43 100
323 0.79272928550149535 1.6278989493072737 3.3192345485058286 210 205 194 0.21833864712104151 8 92 49 82 5 67 50 46 92 56
327 0.61922127855022857 1.8841015387687021 3.1026103991868199 177 173 164 1.0390477537776122 91 98 5 105 8 76
329 1.0255652374426187 1.4205365574472983 3.286035610920258 180 177 168 0.66655171230696741 49 121 91 123 5 108 2 122 47 126 90 126
760 0.11619216075544497 2.4240665483037511 2.7603483173604926 210 207 197 0.16790026773904279 22 5 62 5 63 5
1786 1.4100932475012873 1.5467298698127865 2.9779832870785823 156 155 151 0.63637089951958337 1 33 3 55 45 43 89 86 43 42 79 75 78 88 82 98 87 52 46 50 86 35 48 103 6 55
331 0.49316556844289078 2.1205801332705922 2.6122290960731616 237 232 218 1.4956652985320023 49 48 5 119 92 92
335 0.77804439563626349 2.5313563674039488 2.5733733372043091 95 96 99 0.69335952928191447 8 116 49 80 91 71 50 71 92 104 93 92 52 94 51 93
704 1.1884606891676588 1.2293484671573396 3.3856901284452876 213 209 198 0.64301819834814145 18 53 61 58 19 36
337 0.40959250356244703 2.0098287623909532 3.029890400215852 164 161 152 2.2335892940101045 91 101 50 84 48 127 7 116
1062 1.3205730639339226 1.5093081830532395 2.9798877743944931 221 217 205 0.25906417155731315 29 56 30 66 72 43
708 0.58278182457338867 1.9196276982528768 2.9450913693760632 185 183 177 0.898354516010896 18 75 60 68 61 79 21 67 64 60 22 65 62 76 63 75 20 50 24 95 64 95 66 101 26 105 27 99 68 98 70 103 71 92 29 77 30 95 28 108 73 76 31 123 72 123 32 105 75 121
341 1.4154393795086571 1.4316230455536685 3.0996780505951174 200 196 186 1.5731198302414957 49 19 91 17 92 18 9 35 52 42 50 56 51 42 94 52 10 40 53 57 11 52 95 52 12 61 54 56 96 84 98 124 14 112 55 80 56 106 15 100
343 0.13371721026367622 2.4694879100724552 2.6666913204010441 158 156 153 0.7907091717472281 8 36 92 47 9 45 93 32 94 68 95 38 12 65 96 40 14 55 98 58 17 38
553 0.3571220367654841 2.095535876594294 2.8818915589326024 177 174 166 0.8585083602848631 55 42 96 73 56 79 57 87 15 62 16 109 58 55 100 90 59 59 17 61 18 48 19 71 65 103
344 0.7412640580939579 1.6763948479421855 3.279647667861723 219 214 202 1.0226252240902407 5 107 49 76 50 48 92 53
1738 1.3463054719355778 1.8373204823828404 2.8690637220293191 45 45 45 1.156298750705858 4 142 82 103 80 148 74 127 38 110 79 104 78 100 84 152 42 111 43 134 86 107 7 102 48 114 88 136
347 1.4974713119707883 1.2570467546777215 3.3390499762230132 215 210 198 0.10867991721024869 8 50 92 44
349 0.15397008358138989 2.6265412591450952 2.6965475234339116 0 0 0 0.5388998469339088 91 2 9 2 8 2 49 2 92 1
351 0.41586104377391386 2.0449888190898453 2.8999837619586 218 213 201 1.1703606116425462 5 12 50 16 92 16 9 19 93 20 52 16 51 14 94 17 10 10 53 14 11 12 95 16 12 13 54 17 97 16 96 13 55 15 13 10 14 19 98 18 56 16 57 14 99 14 15 16 16 11 58 13 100 16 59 16 17 17 18 13 60 21 61 18 19 14 21 16 64 13 22 16 62 16 63 16 65 15 23 13 20 15 24 11 66 14 25 15 69 16 67 15 26 16 27 11 68 10 70 12 28 12 71 16 29 15 30 17 73 14 72 17
1068 1.4559974760515959 1.5574536091843867 3.0486267796031981 111 110 107 1.0570863860149002 29 120 30 111 73 106 31 140 72 105
660 1.0039524988221311 1.4555072171046768 3.2690119958311539 201 198 190 0.24155415841243877 16 127 100 110 59 132 18 126
357 1.5292197023077643 1.4622966467206135 3.0475031117358364 0 0 0 1.8532585880547066 91 88 9 56 49 98 93 55
359 0.41167248137420998 2.0076475277773862 2.9576944438803712 167 164 155 1.5045225756266838 5 84 50 77 9 64 52 47
363 0.8136534039902743 1.6293428334184719 3.2985365433660538 192 188 179 0.76072141732916487 91 118 9 86 93 105
668 0.55159591240332495 1.9148160742348268 3.1259372064659501 174 171 163 0.49704899701195671 59 58 100 75 17 82
365 1.5342853389640723 1.7763041848423673 3.0330656759725207 0 0 0 2.0421994043388216 50 72 9 90 94 80
367 1.5854748364089297 1.9824830036997059 3.0668719254928427 0 0 0 2.0932615630410503 91 99 9 99 49 87 52 97 93 83
368 0.83986307777762503 1.7320000514165346 3.1574505579585193 164 161 153 0.77584806193324074 50 92 9 100 91 107 93 70 52 98
369 0.43635076913680182 2.3341324680356026 2.5254006248824075 234 229 216 1.1604311655025252 92 63 9 112 52 53
736 1.3571989224197634 1.2001585720838239 3.4567670268318649 141 140 137 1.351784324955827 19 57 21 84 62 75 22 58 63 96 65 75 23 36 20 43 66 23 24 25 25 74
371 1.5425147717135399 1.7978298405427802 3.0809130039234067 204 200 190 0.72989388514117282 5 17 92 13 9 34 93 44 50 14
373 0.8939489782092136 1.5086367511128431 3.3250399618977027 213 208 197 0.050226024046569812 92 94 9 81
375 0.40914023616682577 2.4347402524781905 2.5060187487526102 182 179 173 1.1612405868754658 5 40 50 32 92 36 93 33 94 50 53 82 97 59 13 64 98 89
1770 1.4059466676393997 1.8766980626772052 3.1009872288814426 178 176 171 1.5670096684945107 4 119 81 33 85 66
379 0.67674031039570137 1.8040354493376705 3.2773092747672119 182 178 169 1.0596385282234586 92 97 93 80 52 84
381 1.1117597962284684 1.3482185820543642 3.2832663966211713 203 198 187 1.3769552781150127 7 110 89 79 2 112 47 92 90 106 8 96 91 91 49 94 5 80 50 68 92 74 9 55 93 54 7 52 89 49 2 65 47 54 90 62 52 64 94 43 51 41 10 41 53 48 11 54 95 46 12 43 54 30 97 30 96 31 55 31 13 34 48 74 48 99
748 0.77512423104483108 1.6233360982038008 3.3683559404153391 171 169 166 0.10163141166606018 60 101 64 89
383 0.57166810338687524 1.8813969583833181 3.194117932579748 207 203 191 0.45120643969139618 9 18 92 25 93 19 52 15
529 0.40953490391969688 2.0303751605054545 2.9316656539883188 214 210 199 0.49053183754270552 13 66 55 37 96 75 14 78 98 80 56 71 99 80
384 0.64809499778535873 1.854253142386721 2.9844770508652991 156 153 145 0.63385702531825105 92 55 52 45
385 0.93543775013679109 1.4243440108251066 3.4362747990256888 198 194 185 0.83563498132007985 5 97 93 58 52 61 10 89
1046 1.0815166972044374 2.2163999734819502 2.5071273154588902 0 0 0 1.4984665997121778 71 2 30 2 73 2 31 3 72 2
1438 1.7178675713396274 1.377619761331154 3.3829312020114659 118 118 119 2.0095988781093523 38 53 79 46 78 31 35 107 78 158
519 0.52501475810130671 1.9061520688666995 3.2712538675086105 86 86 86 0.81567751499034657 14 43 98 40 56 43 57 21 99 23 15 31 16 23 58 23
386 0.34663918893320245 2.0967716474173836 2.8752170280928011 185 181 172 1.2037672241877662 50 78 52 65 5 120
387 0.55174204937340565 2.4459015129888133 2.3229046629704984 157 156 152 1.8065555638726618 5 39 52 67
571 0.25068925891282051 2.0984122126729243 3.0685338285410069 143 142 139 0.40368162492545556 98 84 57 81 56 67 16 81
1450 0.61759849782914855 1.8964233408345064 2.8659681663067422 224 219 207 1.5767802379015925 38 153 78 140 79 171 80 87 37 84 81 140 40 156 79 175 35 52
390 0.15875810240277335 2.4072435857040397 2.6136245041217951 104 103 101 2.1604631382225152 5 72 52 69 8 60 50 54 92 67 93 74 94 65 53 78 54 33 13 49
391 0.90897225323275865 1.8250533075836353 2.8359222634743046 231 226 213 0.94335580048944778 9 10 52 7 93 8 94 6 51 6 10 5 53 8 11 6 95 8 12 10 54 7 97 8 13 11
1044 1.6229786884298063 1.3767508954948868 3.4023351598508853 82 82 82 2.02713324201736 70 86 29 95 26 61 67 75 27 46 68 48 28 50 68 77
